-747425.306 -964657.436 137.360 184 156 121
-747424.571 -964658.031 137.187 169 145 115
-747425.342 -964658.135 137.350 171 145 113
-747425.829 -964658.389 137.520 176 149 117
-747425.648 -964658.683 137.490 161 135 103
-747424.998 -964658.502 137.202 164 142 110
-747425.082 -964658.635 137.185 162 134 103
-747424.712 -964657.950 137.040 166 149 117
-747424.926 -964658.370 137.042 89 70 52
-747425.005 -964658.495 137.034 133 113 88
-747425.439 -964658.615 137.189 149 122 93
-747425.450 -964658.965 137.342 171 141 106
-747425.145 -964658.428 137.055 91 69 48
-747425.692 -964658.824 137.339 41 23 8
-747425.582 -964658.892 137.344 162 133 103
-747425.362 -964657.593 137.199 119 96 69
-747425.732 -964658.457 137.190 94 73 48
-747426.109 -964659.522 137.637 196 179 151
-747425.816 -964658.041 137.180 104 91 75
-747425.727 -964659.167 137.528 74 57 35
-747425.830 -964659.298 137.636 146 120 90
-747425.452 -964658.054 137.176 131 108 80
-747425.636 -964657.975 137.212 88 68 47
-747425.851 -964658.036 137.019 184 177 157
-747426.083 -964658.801 137.330 93 77 50
-747426.021 -964659.033 137.491 102 88 62
-747425.910 -964659.204 137.504 97 74 58
-747426.332 -964659.525 137.478 19 11 4
-747425.742 -964658.130 137.460 167 143 111
-747425.669 -964657.999 137.457 165 135 99
-747425.233 -964657.523 137.324 160 129 93
-747425.705 -964659.045 137.629 147 120 84
-747425.561 -964658.769 137.465 147 120 87
-747425.572 -964659.119 137.618 148 126 95
-747425.254 -964658.235 137.316 195 168 139
-747425.038 -964657.816 137.295 149 127 93
-747425.405 -964658.504 137.322 168 143 116
-747425.334 -964658.359 137.318 153 131 97
-747424.972 -964658.025 137.307 154 138 103
-747425.333 -964658.706 137.334 160 137 103
-747425.808 -964658.266 137.473 168 140 109
-747425.592 -964657.860 137.473 166 132 96
-747425.527 -964657.724 137.459 173 144 110
-747425.755 -964658.478 137.474 180 152 117
-747425.427 -964658.857 137.444 157 135 98
-747424.905 -964658.236 137.309 166 147 107
-747425.106 -964657.951 137.328 159 134 94
-747425.627 -964658.560 137.453 160 133 100
-747425.044 -964658.169 137.321 162 141 107
-747425.158 -964657.739 137.160 131 108 80
-747424.622 -964658.051 136.987 147 127 103
-747425.129 -964658.646 137.014 103 79 56
-747425.175 -964658.084 137.135 148 129 98
-747425.696 -964659.065 137.464 150 127 97
-747425.860 -964659.323 137.616 137 116 86
-747425.088 -964657.581 137.155 119 94 62
-747425.380 -964658.127 137.139 49 33 6
-747425.352 -964658.689 137.134 141 117 86
-747425.232 -964657.536 137.168 134 103 75
-747425.245 -964657.858 137.161 154 129 97
-747425.742 -964658.142 137.313 163 135 105
-747425.619 -964658.515 137.313 126 104 75
-747425.960 -964659.443 137.605 88 72 47
-747425.540 -964658.069 137.159 149 118 88
-747425.851 -964658.036 137.019 184 177 157
-747425.579 -964658.215 137.117 124 101 69
-747425.425 -964658.486 137.132 161 134 106
-747425.540 -964658.428 137.195 166 130 97
-747425.742 -964658.475 137.328 84 64 42
-747426.179 -964659.514 137.630 143 126 95
-747426.211 -964659.641 137.646 152 128 96
-747426.021 -964659.033 137.491 102 88 62
-747425.807 -964658.278 137.159 83 69 44
-747426.253 -964659.439 137.607 17 9 0
-747425.760 -964658.166 137.461 169 145 115
-747425.688 -964658.035 137.467 180 148 114
-747425.610 -964657.896 137.474 169 139 99
-747425.244 -964657.552 137.325 166 132 99
-747425.279 -964658.265 137.316 160 132 103
-747425.057 -964657.852 137.306 143 119 85
-747425.447 -964658.878 137.464 161 135 95
-747425.351 -964658.396 137.319 166 141 105
-747424.991 -964658.061 137.318 157 139 105
-747425.110 -964657.640 137.305 175 142 104
-747425.867 -964659.010 137.621 151 128 99
-747425.538 -964657.752 137.460 166 136 100
-747425.591 -964659.154 137.628 167 141 110
-747425.640 -964658.588 137.464 156 131 99
-747425.309 -964658.610 137.289 154 130 98
-747424.929 -964658.266 137.299 166 148 109
-747425.130 -964657.982 137.319 173 151 111
-747425.069 -964658.199 137.321 164 144 106
-747425.182 -964657.783 137.161 112 89 63
-747425.235 -964658.826 137.135 118 98 70
-747425.446 -964658.892 137.298 80 54 29
-747424.649 -964658.067 136.996 125 108 87
-747425.206 -964658.121 137.135 184 163 132
-747425.715 -964659.087 137.474 115 93 65
-747425.584 -964659.160 137.472 92 74 52
-747425.894 -964659.333 137.613 161 138 99
-747425.264 -964658.264 137.140 74 60 36
-747425.565 -964658.112 137.170 127 98 71
-747425.061 -964658.550 137.013 178 154 122
-747425.438 -964658.526 137.163 115 92 63
-747425.595 -964658.791 137.316 121 93 67
-747425.232 -964657.536 137.168 134 103 75
-747425.367 -964657.499 137.162 208 186 165
-747425.747 -964658.163 137.314 156 124 96
-747425.282 -964657.903 137.151 135 112 84
-747426.072 -964659.105 137.432 64 53 31
-747425.622 -964658.256 137.165 161 137 106
-747425.851 -964658.330 137.159 128 110 75
-747426.215 -964659.394 137.607 14 9 0
-747425.561 -964657.873 137.447 179 144 114
-747425.683 -964659.064 137.633 148 125 89
-747425.532 -964658.794 137.469 142 117 85
-747425.136 -964657.759 137.321 181 152 115
-747425.375 -964658.516 137.316 179 152 120
-747425.297 -964658.378 137.313 165 143 106
-747425.224 -964658.247 137.310 184 153 118
-747425.069 -964657.969 137.323 148 126 89
-747425.302 -964658.719 137.318 169 144 105
-747425.784 -964658.287 137.457 158 132 99
-747425.718 -964658.150 137.444 169 143 108
-747425.724 -964658.503 137.469 176 146 108
-747424.935 -964658.044 137.302 160 140 105
-747425.404 -964658.876 137.448 155 128 93
-747425.016 -964658.181 137.324 176 156 117
-747425.188 -964657.549 137.311 162 134 100
-747425.149 -964657.760 137.153 121 99 71
-747425.106 -964658.653 136.997 103 81 53
-747425.125 -964658.113 137.152 102 84 59
-747425.020 -964658.534 137.006 138 114 86
-747425.681 -964659.077 137.467 126 104 77
-747425.831 -964659.348 137.620 112 93 64
-747425.293 -964658.738 137.153 122 99 70
-747425.508 -964658.800 137.285 108 84 62
-747425.747 -964658.163 137.314 156 124 96
-747425.566 -964658.559 137.311 113 96 66
-747425.962 -964659.237 137.580 126 104 73
-747425.898 -964659.471 137.633 158 134 106
-747425.677 -964657.825 137.295 119 105 82
-747425.864 -964658.103 137.151 146 130 116
-747425.366 -964658.510 137.119 140 119 93
-747425.652 -964658.358 137.140 116 104 76
-747425.742 -964658.475 137.328 84 64 42
-747425.813 -964658.978 137.447 63 43 30
-747426.021 -964659.033 137.491 103 88 62
-747426.066 -964659.187 137.439 174 159 130
-747425.807 -964658.278 137.159 83 69 43
-747426.253 -964659.439 137.607 17 9 0
-747426.317 -964659.615 137.634 76 69 51
-747425.658 -964658.048 137.451 169 138 104
-747425.838 -964659.022 137.615 153 129 97
-747425.214 -964657.578 137.320 162 133 102
-747425.147 -964657.788 137.322 180 151 115
-747425.544 -964658.822 137.480 142 116 83
-747425.314 -964658.415 137.304 169 145 108
-747425.250 -964658.277 137.310 166 137 104
-747425.394 -964658.551 137.326 172 143 108
-747425.080 -964657.652 137.299 162 131 94
-747425.795 -964658.328 137.469 151 124 94
-747425.603 -964658.606 137.459 159 133 101
-747425.403 -964658.903 137.460 150 122 86
-747425.033 -964658.217 137.316 167 147 106
-747424.953 -964658.080 137.303 152 133 101
-747425.405 -964657.289 137.468 183 174 158
-747425.087 -964658.005 137.324 151 129 92
-747425.020 -964657.870 137.301 141 123 89
-747425.165 -964658.144 137.327 149 128 92
-747425.153 -964657.782 137.144 133 106 76
-747425.431 -964658.904 137.300 111 83 57
-747425.149 -964658.144 137.142 159 132 97
-747425.537 -964658.840 137.335 188 161 127
-747425.688 -964659.084 137.476 111 89 62
-747425.849 -964659.371 137.611 53 35 12
-747426.064 -964659.445 137.596 84 70 56
-747425.537 -964658.123 137.183 80 60 42
-747425.044 -964658.564 136.996 180 158 128
-747425.405 -964658.567 137.149 121 99 70
-747425.367 -964657.499 137.162 208 185 164
-747425.747 -964658.163 137.314 156 124 96
-747425.864 -964658.103 137.151 137 121 107
-747425.844 -964659.029 137.458 45 27 16
-747425.622 -964658.256 137.165 161 137 106
-747425.851 -964658.330 137.159 128 111 75
-747426.215 -964659.394 137.607 15 9 0
-747425.829 -964658.620 137.507 184 154 114
-747425.301 -964657.658 137.357 168 140 105
-747425.390 -964658.145 137.356 157 134 104
-747425.173 -964657.740 137.336 170 147 112
-747425.317 -964658.015 137.343 152 124 89
-747425.354 -964658.714 137.342 158 133 101
-747425.131 -964658.645 137.200 163 134 102
-747424.620 -964658.041 137.194 146 129 103
-747425.823 -964658.266 137.492 183 159 133
-747425.608 -964657.860 137.491 170 139 99
-747425.469 -964658.284 137.359 150 124 95
-747425.247 -964657.870 137.349 181 154 115
-747425.697 -964658.693 137.505 146 120 89
-747425.185 -964658.088 137.341 165 141 103
-747424.750 -964657.994 137.050 150 134 106
-747425.136 -964658.653 137.023 112 88 62
-747425.466 -964658.644 137.199 141 117 87
-747425.066 -964658.508 137.029 123 102 77
-747425.354 -964658.726 137.195 186 160 125
-747425.716 -964658.727 137.359 154 130 96
-747425.616 -964658.914 137.362 76 63 45
-747425.232 -964657.536 137.168 134 103 75
-747425.810 -964659.161 137.510 151 126 91
-747425.851 -964658.036 137.019 184 177 157
-747425.540 -964658.428 137.195 166 130 98
-747425.742 -964658.475 137.328 84 64 42
-747426.076 -964659.383 137.512 59 42 22
-747426.159 -964659.519 137.642 151 132 102
-747426.211 -964659.641 137.646 152 128 95
-747426.083 -964658.801 137.330 93 77 50
-747426.021 -964659.033 137.491 103 89 62
-747425.919 -964659.106 137.515 35 18 7
-747425.611 -964658.252 137.038 107 78 56
-747425.855 -964658.649 137.517 170 141 101
-747425.781 -964658.520 137.495 169 141 102
-747425.319 -964657.694 137.368 155 131 100
-747425.731 -964659.087 137.650 165 137 100
-747425.715 -964658.729 137.506 149 124 91
-747425.414 -964658.189 137.357 154 128 97
-747425.185 -964657.769 137.337 176 152 117
-747425.588 -964658.810 137.495 157 128 92
-747425.336 -964658.051 137.354 161 135 100
-747425.432 -964658.532 137.341 161 136 109
-747425.361 -964658.733 137.363 163 141 109
-747425.078 -964658.550 137.208 168 139 107
-747424.638 -964658.077 137.204 131 117 87
-747425.835 -964658.308 137.503 167 142 117
-747425.619 -964657.889 137.483 175 145 103
-747425.196 -964658.118 137.332 162 136 97
-747425.264 -964657.906 137.350 180 155 115
-747424.721 -964658.224 137.020 141 124 95
-747424.721 -964657.852 137.052 175 151 116
-747425.006 -964658.418 137.048 147 122 92
-747425.709 -964659.079 137.474 113 92 64
-747425.591 -964659.166 137.482 89 72 51
-747425.367 -964658.727 137.194 184 160 129
-747425.152 -964658.345 137.058 185 163 134
-747425.716 -964658.727 137.359 154 130 97
-747425.559 -964658.117 137.180 103 80 56
-747425.447 -964658.519 137.181 121 94 65
-747425.654 -964658.575 137.373 120 91 63
-747425.232 -964657.536 137.168 134 103 75
-747425.149 -964658.681 137.034 123 100 71
-747425.924 -964659.500 137.643 159 140 95
-747425.368 -964657.498 137.172 208 186 165
-747425.540 -964658.428 137.195 166 130 98
-747426.075 -964659.397 137.513 52 35 17
-747426.144 -964659.531 137.644 157 136 107
-747426.013 -964658.924 137.375 50 34 17
-747425.952 -964659.156 137.536 36 22 10
-747425.588 -964657.913 137.074 150 131 94
-747425.447 -964657.407 137.512 176 162 144
-747425.799 -964658.645 137.512 176 145 103
-747425.277 -964657.678 137.351 171 141 109
-747425.367 -964658.165 137.349 157 134 104
-747425.288 -964658.027 137.347 155 131 99
-747425.456 -964658.999 137.521 150 130 94
-747425.323 -964658.740 137.337 160 136 100
-747425.023 -964658.532 137.202 154 131 100
-747424.590 -964658.053 137.187 166 148 119
-747425.432 -964658.302 137.354 153 130 99
-747425.666 -964658.719 137.500 161 136 100
-747425.148 -964658.107 137.336 155 135 98
-747425.324 -964657.472 137.361 168 144 110
-747425.216 -964657.896 137.344 165 142 106
-747424.782 -964658.121 137.056 140 122 92
-747424.729 -964657.986 137.041 151 133 103
-747425.414 -964657.958 137.202 78 57 36
-747424.938 -964658.385 137.042 73 55 38
-747425.458 -964658.650 137.200 152 126 96
-747425.150 -964658.450 137.056 86 64 40
-747425.607 -964658.935 137.355 70 55 36
-747425.713 -964658.512 137.353 125 95 71
-747425.725 -964658.860 137.358 80 67 42
-747425.177 -964657.570 137.205 145 122 95
-747425.362 -964657.593 137.199 120 97 69
-747425.517 -964658.447 137.189 137 109 81
-747425.902 -964659.133 137.509 53 37 22
-747425.905 -964659.477 137.643 178 151 122
-747426.123 -964659.536 137.646 178 156 128
-747426.211 -964659.641 137.646 152 128 96
-747425.842 -964658.069 137.032 150 141 122
-747426.083 -964658.801 137.330 93 77 50
-747426.021 -964659.033 137.491 103 89 62
-747426.068 -964659.403 137.523 52 33 19
-747425.492 -964658.097 137.195 125 93 72
-747425.811 -964658.674 137.513 173 142 103
-747425.678 -964658.747 137.501 165 138 101
-747425.282 -964657.713 137.353 167 141 113
-747425.688 -964659.097 137.654 164 138 99
-747425.385 -964658.201 137.350 147 127 96
-747425.306 -964658.063 137.348 170 142 109
-747425.329 -964658.760 137.348 170 145 112
-747425.416 -964657.293 137.516 183 179 168
-747425.278 -964657.370 137.368 165 138 110
-747425.048 -964658.562 137.202 167 140 110
-747425.818 -964658.322 137.486 155 127 97
-747425.744 -964658.538 137.490 171 143 104
-747425.450 -964658.338 137.355 154 129 100
-747425.234 -964657.932 137.345 164 139 98
-747425.328 -964657.507 137.363 164 141 115
-747424.668 -964657.897 137.050 142 110 89
-747424.742 -964658.014 137.052 132 116 90
-747425.438 -964657.989 137.192 85 62 37
-747424.970 -964658.436 137.052 153 129 97
-747425.694 -964659.105 137.487 109 86 60
-747425.328 -964658.773 137.192 111 93 65
-747425.456 -964658.691 137.213 114 87 57
-747425.537 -964658.123 137.183 83 62 44
-747425.133 -964658.707 137.038 134 112 81
-747425.177 -964657.570 137.205 145 122 96
-747425.333 -964657.860 137.212 181 162 137
-747425.894 -964659.153 137.511 76 61 41
-747425.924 -964659.500 137.643 161 141 98
-747425.833 -964658.115 137.056 76 63 48
-747425.367 -964657.512 137.173 206 184 161
-747425.596 -964658.264 137.040 128 100 74
-747425.507 -964658.468 137.182 113 90 66
-747426.129 -964659.544 137.646 167 143 115
-747425.588 -964657.913 137.074 150 131 94
-747425.790 -964658.357 137.196 100 81 54
-747425.466 -964657.481 137.476 166 144 116
-747425.407 -964657.338 137.462 173 163 144
-747426.038 -964658.789 137.599 177 156 134
-747425.958 -964658.997 137.612 141 119 89
-747425.196 -964657.632 137.326 162 136 102
-747425.129 -964657.842 137.328 167 140 101
-747425.387 -964658.942 137.474 148 119 88
-747425.369 -964658.598 137.322 165 138 105
-747425.230 -964658.332 137.296 168 147 111
-747425.154 -964658.192 137.322 158 135 101
-747425.013 -964658.273 137.302 167 144 107
-747425.783 -964658.377 137.464 162 138 105
-747425.536 -964657.626 137.471 192 172 147
-747425.591 -964658.667 137.464 160 133 100
-747425.075 -964658.054 137.319 144 129 96
-747425.315 -964658.465 137.288 160 134 101
-747424.942 -964658.127 137.308 149 132 99
-747425.607 -964659.025 137.607 151 133 100
-747425.001 -964657.924 137.297 157 136 101
-747425.129 -964657.496 137.302 171 138 105
-747425.068 -964657.713 137.304 157 130 94
-747425.421 -964658.388 137.144 117 97 74
-747425.798 -964659.081 137.456 120 93 70
-747425.968 -964659.347 137.598 79 60 40
-747425.851 -964659.434 137.615 33 17 5
-747426.036 -964659.469 137.620 119 104 81
-747425.068 -964657.726 137.148 150 125 96
-747425.081 -964658.061 137.152 91 70 50
-747425.392 -964658.963 137.308 154 127 102
-747425.269 -964657.428 137.166 166 137 105
-747425.495 -964658.171 137.141 90 69 45
-747425.025 -964658.606 136.981 131 109 86
-747425.322 -964657.550 137.170 103 79 54
-747425.764 -964658.379 137.328 175 152 125
-747425.675 -964658.480 137.285 150 124 89
-747425.765 -964659.302 137.613 168 143 105
-747425.681 -964657.936 136.969 173 143 110
-747425.559 -964657.989 137.141 195 171 135
-747425.711 -964658.270 137.168 144 117 83
-747425.884 -964658.187 136.988 83 74 53
-747425.853 -964658.522 137.449 150 126 96
-747425.965 -964659.004 137.454 94 73 50
-747425.418 -964657.380 137.473 170 156 138
-747425.483 -964657.517 137.477 180 160 132
-747425.977 -964659.033 137.623 152 129 98
-747425.620 -964659.052 137.628 150 130 94
-747425.080 -964657.742 137.306 162 133 96
-747425.247 -964658.368 137.297 190 171 135
-747425.171 -964658.229 137.313 152 127 93
-747425.027 -964657.953 137.306 159 139 104
-747425.147 -964657.532 137.303 171 138 101
-747425.272 -964658.718 137.291 150 128 93
-747425.555 -964657.661 137.482 195 175 151
-747425.789 -964658.410 137.486 162 142 109
-747425.610 -964658.702 137.475 153 125 92
-747425.094 -964658.089 137.330 153 136 100
-747425.668 -964658.486 137.453 174 142 106
-747425.147 -964657.878 137.329 155 129 94
-747425.326 -964658.493 137.289 169 144 108
-747424.954 -964658.169 137.319 160 144 109
-747425.698 -964657.937 137.489 195 176 152
-747424.659 -964657.969 137.017 163 136 104
-747425.067 -964657.740 137.149 161 136 106
-747424.972 -964658.523 137.009 106 87 65
-747425.459 -964658.432 137.154 84 66 40
-747425.398 -964658.650 137.146 152 123 92
-747425.092 -964658.089 137.153 120 97 71
-747425.604 -964659.065 137.453 125 109 73
-747425.829 -964659.119 137.446 97 74 58
-747425.855 -964659.468 137.617 47 28 15
-747425.419 -964658.991 137.327 151 123 93
-747425.269 -964657.428 137.166 168 137 105
-747425.675 -964658.480 137.285 150 125 90
-747425.565 -964658.560 137.301 114 96 67
-747425.889 -964659.248 137.627 70 55 37
-747425.772 -964659.308 137.623 170 144 105
-747425.681 -964657.936 136.969 173 143 110
-747425.884 -964658.187 136.988 83 74 54
-747425.568 -964658.352 137.128 101 79 60
-747425.598 -964658.724 137.281 83 56 31
-747426.030 -964658.845 137.328 148 117 85
-747425.949 -964659.030 137.458 109 86 65
-747426.189 -964659.441 137.594 60 37 25
-747425.711 -964658.270 137.168 145 118 84
-747426.295 -964659.583 137.585 94 79 58
-747425.586 -964657.776 137.477 183 150 115
-747425.455 -964657.502 137.459 169 147 120
-747425.915 -964659.021 137.618 139 118 90
-747425.159 -964657.650 137.321 170 143 108
-747425.328 -964658.274 137.332 176 152 121
-747425.098 -964657.867 137.323 157 130 93
-747425.489 -964658.894 137.481 170 140 104
-747425.039 -964658.071 137.324 146 131 98
-747424.983 -964658.285 137.296 152 132 96
-747425.795 -964658.188 137.488 184 160 134
-747425.729 -964658.051 137.475 190 170 145
-747425.760 -964658.396 137.458 158 135 103
-747425.519 -964657.640 137.454 184 156 123
-747425.657 -964657.921 137.472 168 139 107
-747425.227 -964657.439 137.328 167 146 112
-747425.579 -964659.037 137.611 165 146 115
-747425.554 -964658.685 137.459 155 132 96
-747425.338 -964658.624 137.317 163 136 102
-747424.905 -964658.146 137.303 164 144 107
-747425.117 -964658.210 137.317 152 134 101
-747424.653 -964657.961 137.017 169 143 111
-747425.317 -964657.925 137.169 161 137 105
-747425.413 -964658.394 137.146 123 102 78
-747425.293 -964658.828 137.160 121 101 71
-747425.495 -964658.888 137.303 51 29 11
-747425.647 -964659.170 137.487 146 122 89
-747425.784 -964659.093 137.468 138 103 76
-747425.874 -964659.247 137.619 64 47 32
-747425.938 -964659.372 137.602 110 84 59
-747426.021 -964659.481 137.622 102 82 57
-747425.196 -964657.784 137.160 96 74 51
-747425.028 -964658.092 137.140 143 117 83
-747425.625 -964658.843 137.307 95 72 47
-747425.721 -964658.032 137.277 120 95 66
-747425.756 -964658.386 137.320 180 156 130
-747425.553 -964657.981 137.141 198 173 139
-747425.585 -964658.121 137.168 150 109 82
-747425.705 -964658.262 137.168 143 116 83
-747425.867 -964658.011 137.173 249 237 221
-747425.941 -964659.036 137.459 120 97 77
-747425.591 -964657.810 137.489 184 150 116
-747425.467 -964657.531 137.460 172 150 122
-747425.402 -964657.394 137.456 164 149 129
-747425.682 -964657.951 137.471 178 150 120
-747425.728 -964659.000 137.614 146 119 86
-747425.591 -964659.065 137.622 153 131 97
-747425.573 -964658.721 137.470 152 127 93
-747425.345 -964658.311 137.323 174 150 117
-747425.117 -964657.890 137.323 147 125 90
-747425.134 -964658.247 137.308 150 128 94
-747424.989 -964657.972 137.292 157 140 105
-747425.110 -964657.550 137.298 166 134 100
-747425.755 -964658.081 137.484 189 169 147
-747425.538 -964657.675 137.464 184 156 123
-747425.057 -964657.762 137.299 156 129 94
-747425.337 -964658.651 137.329 167 140 111
-747424.923 -964658.195 137.314 165 146 108
-747425.766 -964658.430 137.479 173 151 115
-747425.244 -964657.475 137.329 169 141 104
-747425.063 -964658.115 137.325 158 139 108
-747425.404 -964658.094 137.144 111 89 68
-747424.653 -964657.961 137.017 170 143 111
-747425.058 -964657.760 137.151 119 96 69
-747425.383 -964658.662 137.149 146 117 88
-747425.062 -964658.115 137.148 150 124 88
-747425.516 -964658.922 137.333 57 38 15
-747425.604 -964659.065 137.453 128 110 74
-747425.873 -964659.261 137.620 74 55 38
-747425.945 -964659.393 137.613 110 83 58
-747425.096 -964657.574 137.164 116 90 60
-747425.245 -964657.858 137.161 149 124 94
-747425.194 -964658.029 137.139 154 127 99
-747425.619 -964658.515 137.313 126 105 75
-747425.591 -964658.731 137.282 81 54 30
-747425.631 -964658.850 137.307 93 69 46
-747425.681 -964657.936 136.969 173 143 110
-747425.553 -964657.981 137.141 197 172 137
-747425.867 -964658.011 137.173 249 237 221
-747425.568 -964658.352 137.128 101 79 60
-747426.030 -964658.845 137.328 148 117 85
-747425.934 -964659.043 137.460 107 86 66
-747425.711 -964658.270 137.168 144 118 83
-747425.612 -964657.754 137.513 190 171 151
-747425.482 -964657.480 137.504 181 162 137
-747425.800 -964658.721 137.518 168 139 99
-747425.667 -964658.795 137.506 165 138 102
-747425.270 -964657.774 137.359 170 145 109
-747425.365 -964658.256 137.337 172 153 126
-747425.287 -964658.117 137.344 162 135 99
-747425.382 -964658.613 137.332 165 139 105
-747425.312 -964658.813 137.363 173 149 112
-747425.761 -964658.037 137.510 198 191 181
-747425.527 -964658.875 137.495 152 128 94
-747425.684 -964659.152 137.659 166 137 102
-747425.257 -964657.426 137.344 170 147 114
-747425.726 -964658.592 137.495 172 142 107
-747425.547 -964657.617 137.508 198 190 177
-747425.805 -964658.384 137.482 162 137 105
-747425.696 -964657.900 137.506 189 169 145
-747425.209 -964657.979 137.341 167 143 110
-747425.330 -964657.556 137.357 172 148 116
-747425.445 -964658.394 137.349 169 141 103
-747424.655 -964657.947 137.026 163 135 105
-747424.730 -964658.062 137.047 97 81 57
-747425.349 -964657.898 137.194 173 151 128
-747425.419 -964658.044 137.178 174 150 119
-747424.951 -964658.477 137.037 112 96 67
-747425.146 -964658.555 137.035 149 121 91
-747425.090 -964658.411 137.049 86 66 42
-747425.896 -964659.203 137.505 99 75 56
-747425.251 -964657.750 137.202 175 155 119
-747425.540 -964658.876 137.327 144 115 89
-747425.676 -964659.158 137.493 132 108 78
-747425.264 -964657.420 137.176 148 121 96
-747425.399 -964657.741 137.207 88 71 46
-747425.667 -964658.807 137.359 31 14 2
-747425.322 -964657.550 137.170 103 79 54
-747425.816 -964658.041 137.180 104 91 75
-747425.582 -964658.276 137.052 150 123 94
-747425.641 -964658.444 137.177 139 110 81
-747425.711 -964658.270 137.168 145 118 83
-747425.790 -964658.357 137.196 100 81 54
-747425.429 -964657.372 137.501 177 167 153
-747425.631 -964657.789 137.523 189 172 151
-747425.500 -964657.516 137.505 189 175 150
-747425.686 -964658.830 137.517 162 137 103
-747425.289 -964657.809 137.370 177 150 114
-747425.547 -964658.910 137.516 157 134 96
-747425.383 -964658.292 137.338 177 155 127
-747425.234 -964658.009 137.340 158 133 100
-747425.396 -964658.640 137.352 156 132 99
-747425.818 -964658.757 137.519 159 131 93
-747425.565 -964657.653 137.510 196 185 173
-747425.342 -964657.598 137.369 183 157 130
-747425.708 -964657.929 137.507 195 182 165
-747425.744 -964658.627 137.506 168 136 102
-747425.282 -964657.456 137.344 177 148 112
-747425.214 -964657.667 137.337 162 137 104
-747425.305 -964658.153 137.345 159 133 101
-747425.810 -964658.418 137.494 168 143 109
-747425.456 -964658.422 137.350 164 138 103
-747424.666 -964657.976 137.017 156 129 97
-747424.747 -964658.112 137.049 128 109 81
-747425.321 -964658.869 137.199 132 108 77
-747425.365 -964657.949 137.186 64 43 24
-747424.897 -964658.382 137.045 82 63 45
-747425.102 -964658.439 137.050 78 59 35
-747425.551 -964658.918 137.339 131 99 72
-747425.425 -964658.999 137.327 146 120 85
-747425.675 -964659.185 137.505 132 107 72
-747425.362 -964657.593 137.199 115 93 65
-747425.399 -964657.741 137.207 88 71 46
-747425.685 -964658.818 137.329 36 18 4
-747425.139 -964657.526 137.205 130 103 78
-747425.289 -964657.808 137.212 184 163 137
-747425.792 -964658.420 137.368 175 149 121
-747425.445 -964658.060 137.177 142 118 88
-747425.692 -964657.954 137.353 78 62 40
-747425.816 -964658.041 137.180 104 91 75
-747425.711 -964658.270 137.168 145 118 84
-747425.602 -964657.775 137.495 187 158 130
-747425.822 -964658.536 137.512 154 129 96
-747425.769 -964658.747 137.513 157 130 94
-747425.240 -964657.786 137.353 166 143 107
-747425.629 -964658.827 137.502 163 135 97
-747425.384 -964658.061 137.360 144 122 91
-747425.258 -964658.129 137.337 159 133 97
-747425.496 -964658.901 137.490 166 136 100
-747424.614 -964657.956 137.207 151 129 99
-747425.818 -964658.181 137.505 198 182 164
-747425.752 -964658.045 137.492 195 184 168
-747425.654 -964659.178 137.654 152 125 92
-747425.463 -964658.199 137.363 164 134 99
-747425.668 -964657.899 137.498 182 157 125
-747425.695 -964658.618 137.490 168 139 103
-747425.313 -964657.930 137.367 184 161 128
-747425.281 -964658.840 137.349 162 134 97
-747425.407 -964658.413 137.335 165 138 101
-747425.178 -964658.005 137.336 166 143 108
-747425.132 -964658.567 137.214 171 141 107
-747425.307 -964657.576 137.351 178 150 116
-747424.653 -964657.961 137.017 170 143 110
-747424.766 -964658.211 137.045 118 101 73
-747424.691 -964658.096 137.024 171 150 122
-747425.325 -964657.918 137.178 158 134 104
-747425.145 -964658.556 137.025 147 120 90
-747425.061 -964658.422 137.053 84 67 45
-747425.279 -964658.840 137.172 115 99 65
-747425.647 -964659.170 137.487 136 113 81
-747425.792 -964659.099 137.487 149 108 80
-747425.251 -964657.750 137.202 170 150 115
-747425.399 -964657.741 137.207 88 71 46
-747424.842 -964658.378 137.040 154 134 103
-747425.322 -964657.550 137.170 103 79 54
-747425.454 -964658.526 137.191 125 97 68
-747425.592 -964658.127 137.178 137 104 76
-747425.901 -964659.018 137.383 97 69 50
-747425.229 -964657.437 137.190 105 77 63
-747425.641 -964658.444 137.177 139 110 81
-747425.952 -964659.156 137.536 37 23 11
-747425.493 -964658.006 137.198 62 46 29
-747425.613 -964657.804 137.497 183 155 125
-747425.787 -964658.783 137.514 146 122 89
-747425.402 -964658.097 137.361 147 123 98
-747425.258 -964657.822 137.354 188 164 123
-747425.660 -964659.199 137.665 148 123 89
-747425.649 -964658.849 137.512 168 142 103
-747425.184 -964657.693 137.332 170 146 113
-747425.276 -964658.165 137.338 158 135 102
-747424.625 -964657.999 137.210 159 139 108
-747425.822 -964658.216 137.508 202 189 173
-747425.771 -964658.080 137.502 198 184 170
-747425.510 -964658.928 137.511 159 132 93
-747425.320 -964657.604 137.361 192 163 133
-747425.715 -964658.639 137.500 168 138 100
-747425.337 -964657.960 137.357 173 143 106
-747425.373 -964658.659 137.346 151 127 98
-747425.143 -964658.597 137.206 167 139 107
-747425.841 -964658.571 137.522 173 146 112
-747425.196 -964658.041 137.337 163 137 102
-747425.481 -964658.235 137.364 169 137 102
-747425.425 -964658.449 137.336 157 133 97
-747424.653 -964657.961 137.017 170 143 111
-747424.710 -964658.118 137.024 146 127 99
-747425.307 -964658.868 137.201 128 106 74
-747425.344 -964657.941 137.178 115 92 66
-747424.854 -964658.392 137.040 142 121 92
-747425.156 -964658.585 137.026 128 104 74
-747425.065 -964658.458 137.045 75 56 36
-747425.509 -964658.928 137.344 54 36 16
-747425.790 -964659.139 137.500 133 108 77
-747425.667 -964659.191 137.506 128 104 71
-747425.342 -964657.610 137.222 72 54 32
-747425.399 -964657.741 137.207 88 71 46
-747424.791 -964658.254 137.056 73 60 38
-747425.288 -964657.822 137.213 181 160 133
-747425.792 -964658.420 137.368 176 149 121
-747425.692 -964657.954 137.353 78 62 40
-747425.620 -964658.155 137.207 95 72 50
-747425.874 -964659.260 137.629 66 48 34
-747425.493 -964658.006 137.198 63 46 29
-747426.085 -964659.350 137.508 106 83 61
-747425.436 -964657.416 137.474 166 148 127
-747425.776 -964659.011 137.610 138 117 86
-747425.099 -964657.778 137.316 173 144 106
-747425.494 -964658.813 137.455 146 121 88
-747425.344 -964658.542 137.301 176 147 112
-747425.195 -964658.259 137.304 170 139 104
-747425.046 -964657.989 137.317 149 130 96
-747425.165 -964657.567 137.314 174 146 111
-747425.286 -964658.746 137.312 155 132 95
-747425.566 -964657.690 137.483 188 164 139
-747425.501 -964657.553 137.479 185 165 136
-747425.273 -964658.398 137.297 184 159 123
-747424.979 -964658.199 137.319 168 154 115
-747425.687 -964658.522 137.464 170 139 101
-747425.111 -964658.126 137.321 151 132 99
-747425.397 -964658.330 137.142 101 81 62
-747425.366 -964657.986 137.159 87 67 45
-747425.397 -964658.664 137.148 137 112 78
-747425.117 -964658.119 137.153 107 88 61
-747424.990 -964658.546 137.000 120 97 70
-747425.293 -964658.738 137.153 122 99 70
-747425.651 -964659.089 137.460 111 92 62
-747425.996 -964659.425 137.601 80 58 38
-747425.452 -964658.118 137.161 97 73 49
-747425.508 -964658.800 137.285 109 85 63
-747425.473 -964658.446 137.164 93 75 47
-747425.803 -964659.359 137.634 122 103 73
-747425.860 -964659.477 137.607 52 37 18
-747425.677 -964657.825 137.295 118 105 82
-747425.692 -964657.954 137.353 78 62 40
-747425.596 -964658.393 137.168 117 97 72
-747426.136 -964659.371 137.633 94 75 52
-747425.498 -964657.592 136.999 97 81 55
-747425.598 -964658.724 137.281 83 56 31
-747425.424 -964659.013 137.328 122 97 71
-747426.030 -964658.845 137.328 148 117 85
-747426.066 -964659.187 137.439 174 159 130
-747426.128 -964659.377 137.467 107 88 64
-747425.666 -964658.218 137.158 98 78 55
-747425.749 -964658.315 137.167 92 70 48
-747425.850 -964659.152 137.486 107 86 65
-747425.966 -964659.079 137.470 57 37 20
-747426.317 -964659.615 137.634 77 70 52
-747426.058 -964659.220 137.629 73 57 40
-747425.454 -964657.452 137.475 154 136 115
-747425.803 -964659.039 137.630 149 127 94
-747425.177 -964657.596 137.315 166 141 109
-747425.572 -964658.632 137.454 159 133 101
-747425.117 -964657.814 137.317 170 140 103
-747425.356 -964658.570 137.312 168 140 104
-747425.212 -964658.296 137.295 165 138 101
-747425.778 -964658.342 137.452 159 133 100
-747425.507 -964658.840 137.475 143 120 87
-747425.700 -964658.550 137.475 159 133 95
-747425.291 -964658.434 137.298 164 137 103
-747425.057 -964658.017 137.318 144 125 93
-747424.983 -964657.888 137.296 153 132 97
-747425.381 -964658.922 137.463 152 122 87
-747425.285 -964658.772 137.333 162 136 97
-747424.996 -964658.236 137.311 171 153 113
-747424.930 -964658.099 137.297 156 139 105
-747425.519 -964657.589 137.480 187 167 140
-747425.128 -964658.162 137.322 149 130 98
-747425.409 -964658.372 137.154 140 116 94
-747425.384 -964658.022 137.160 179 155 126
-747425.135 -964658.155 137.154 156 130 94
-747425.950 -964659.324 137.607 69 58 40
-747426.036 -964659.469 137.620 119 104 82
-747425.292 -964658.765 137.165 124 101 71
-747425.521 -964658.854 137.327 143 122 93
-747425.793 -964659.060 137.455 109 92 69
-747425.495 -964658.171 137.141 91 69 46
-747425.013 -964658.591 136.981 120 100 78
-747425.322 -964657.550 137.170 103 79 54
-747425.815 -964659.374 137.624 104 85 58
-747425.677 -964657.825 137.295 119 105 82
-747425.666 -964658.218 137.158 96 75 51
-747425.763 -964658.380 137.319 170 149 123
-747425.498 -964657.592 136.999 96 81 55
-747425.837 -964658.510 137.331 126 98 68
-747426.065 -964659.227 137.629 73 57 40
-747425.413 -964657.423 137.457 162 143 121
-747425.773 -964658.117 137.485 181 159 133
-747425.700 -964657.987 137.472 187 161 131
-747425.256 -964657.504 137.330 170 140 101
-747425.754 -964659.029 137.623 143 121 90
-747425.585 -964658.749 137.481 152 126 90
-747425.610 -964659.100 137.632 146 123 88
-747425.061 -964657.797 137.301 159 133 96
-747425.158 -964658.277 137.299 165 138 104
-747424.994 -964658.007 137.304 149 135 100
-747425.128 -964657.587 137.299 190 155 121
-747425.248 -964658.778 137.308 146 126 95
-747426.025 -964658.864 137.606 175 147 111
-747425.551 -964657.703 137.475 178 149 118
-747425.465 -964658.825 137.448 156 132 95
-747425.485 -964657.567 137.461 180 155 121
-747425.357 -964658.340 137.324 154 132 97
-747425.141 -964657.933 137.324 169 144 107
-747424.935 -964658.223 137.315 175 155 118
-747425.664 -964658.541 137.458 166 137 101
-747425.321 -964658.562 137.295 164 136 102
-747425.081 -964658.151 137.326 156 139 102
-747425.358 -964657.993 137.151 100 79 55
-747425.388 -964658.671 137.139 135 110 76
-747425.087 -964658.145 137.148 114 96 68
-747425.246 -964658.778 137.131 160 132 102
-747425.609 -964659.100 137.465 148 126 92
-747425.753 -964659.042 137.457 173 150 120
-747425.902 -964659.326 137.622 177 154 112
-747425.969 -964659.436 137.614 97 73 51
-747425.232 -964658.074 137.139 134 113 85
-747425.096 -964657.574 137.164 114 89 58
-747425.431 -964658.110 137.152 114 90 66
-747425.245 -964657.858 137.161 156 131 98
-747425.619 -964658.515 137.313 126 105 75
-747425.589 -964658.757 137.294 90 62 38
-747425.540 -964658.069 137.159 148 116 85
-747425.432 -964658.493 137.141 144 118 90
-747425.596 -964658.393 137.168 117 97 72
-747426.127 -964659.379 137.615 87 68 48
-747426.179 -964659.514 137.630 141 125 94
-747425.498 -964657.592 136.999 97 81 55
-747425.932 -964658.415 136.971 160 145 111
-747426.030 -964658.845 137.328 148 117 85
-747426.049 -964659.227 137.611 62 46 30
-747426.127 -964659.378 137.457 106 85 63
-747425.666 -964658.218 137.158 99 78 55
-747425.749 -964658.315 137.167 92 70 47
-747425.966 -964659.079 137.470 57 37 20
-747424.644 -964658.046 136.995 141 121 99
-747425.430 -964657.459 137.449 159 140 120
-747425.790 -964658.153 137.476 179 154 126
-747425.902 -964658.993 137.607 148 125 96
-747425.767 -964659.057 137.634 152 130 97
-747425.146 -964657.622 137.310 178 149 112
-747425.080 -964657.832 137.312 157 130 92
-747425.477 -964658.866 137.470 165 138 99
-747425.019 -964658.050 137.314 154 135 101
-747425.711 -964658.015 137.474 191 167 140
-747425.568 -964657.739 137.476 168 138 105
-747425.669 -964658.576 137.470 157 131 95
-747425.333 -964658.590 137.305 164 136 103
-747424.959 -964658.254 137.306 175 153 116
-747425.255 -964658.797 137.328 154 130 97
-747425.502 -964657.604 137.453 177 151 115
-747425.159 -964657.969 137.325 180 156 120
-747425.092 -964658.180 137.327 154 139 104
-747425.369 -964658.021 137.152 171 144 116
-747425.402 -964658.365 137.145 147 122 101
-747424.657 -964658.060 137.004 126 109 86
-747425.098 -964658.174 137.149 127 109 82
-747425.259 -964658.806 137.141 146 120 88
-747425.475 -964658.880 137.304 53 30 11
-747425.759 -964659.050 137.457 156 135 106
-747425.621 -964659.141 137.477 161 137 99
-747425.902 -964659.327 137.612 163 142 103
-747426.015 -964659.474 137.622 101 81 56
-747425.223 -964658.094 137.141 152 132 103
-747425.595 -964658.791 137.316 118 90 65
-747425.322 -964657.550 137.170 103 78 54
-747425.721 -964658.032 137.277 120 95 66
-747425.446 -964658.519 137.172 114 90 62
-747425.666 -964658.218 137.158 93 73 48
-747425.282 -964657.903 137.151 135 112 84
-747425.628 -964658.430 137.168 134 107 79
-747425.756 -964658.386 137.320 176 154 129
-747426.127 -964659.379 137.615 87 67 49
-747425.498 -964657.592 136.999 96 81 55
-747425.932 -964658.415 136.971 159 144 111
-747425.837 -964658.510 137.331 126 98 68
-747426.050 -964659.227 137.620 65 49 33
-747426.127 -964659.378 137.457 106 85 63
-747425.446 -964657.408 137.502 176 160 140
-747425.518 -964657.552 137.506 199 188 173
-747425.824 -964658.445 137.515 168 142 112
-747425.762 -964658.663 137.507 165 134 96
-747425.300 -964657.492 137.345 176 149 112
-747425.233 -964657.702 137.347 176 146 112
-747425.639 -964659.088 137.639 150 125 87
-747425.629 -964658.737 137.495 169 139 99
-747425.474 -964658.458 137.351 148 125 95
-747425.252 -964658.045 137.341 165 141 112
-747425.408 -964658.668 137.363 151 129 97
-747425.726 -964657.965 137.508 195 188 175
-747425.583 -964657.689 137.511 189 171 155
-747425.323 -964658.189 137.346 158 137 110
-747425.408 -964658.322 137.338 166 142 109
-747425.179 -964657.914 137.339 168 147 113
-747424.765 -964658.135 137.039 101 86 61
-747425.393 -964657.950 137.193 66 45 26
-747424.915 -964658.418 137.046 87 67 48
-747425.047 -964658.345 137.048 138 113 85
-747425.119 -964658.475 137.051 85 65 42
-747425.563 -964658.946 137.340 127 95 62
-747425.447 -964658.698 137.204 116 88 58
-747425.718 -964658.867 137.359 95 75 49
-747425.707 -964658.518 137.364 131 100 76
-747425.177 -964657.570 137.205 146 123 97
-747425.314 -964657.838 137.212 182 162 137
-747425.499 -964658.475 137.173 103 83 60
-747425.857 -964659.159 137.496 106 85 64
-747425.692 -964657.954 137.353 78 62 40
-747425.596 -964658.393 137.168 117 97 72
-747425.498 -964657.592 136.999 96 81 55
-747425.623 -964658.755 137.359 107 77 52
-747425.424 -964659.013 137.328 129 104 74
-747426.030 -964658.845 137.328 148 117 85
-747425.877 -964658.270 137.073 140 125 87
-747425.966 -964659.079 137.470 57 37 20
-747424.685 -964657.998 137.027 135 109 76
-747425.464 -964657.444 137.503 175 155 132
-747425.601 -964657.725 137.512 185 166 144
-747425.536 -964657.588 137.507 200 191 178
-747425.835 -964658.487 137.526 147 126 92
-747425.787 -964658.693 137.507 169 138 100
-747425.312 -964657.520 137.356 175 149 118
-747425.251 -964657.738 137.348 171 145 112
-747425.672 -964659.124 137.648 164 137 101
-747425.648 -964658.773 137.506 176 146 106
-747425.341 -964658.226 137.347 156 136 107
-747425.269 -964658.081 137.343 178 152 120
-747425.743 -964658.001 137.509 192 186 175
-747425.426 -964658.358 137.339 165 139 105
-747425.299 -964658.786 137.343 171 142 107
-747425.197 -964657.950 137.340 160 140 108
-747424.668 -964657.897 137.050 142 111 89
-747424.769 -964658.183 137.052 112 96 68
-747424.722 -964658.069 137.038 120 100 74
-747425.401 -964658.021 137.188 175 151 122
-747425.136 -964658.512 137.042 136 113 82
-747425.446 -964658.711 137.205 117 89 60
-747425.066 -964658.367 137.048 126 102 73
-747425.872 -964659.172 137.515 100 78 51
-747425.251 -964657.750 137.202 175 155 120
-747425.314 -964658.772 137.183 107 87 61
-747425.529 -964658.847 137.336 179 155 120
-747425.577 -964658.973 137.370 173 148 121
-747424.927 -964658.446 137.047 121 98 69
-747425.177 -964657.570 137.205 146 123 97
-747425.322 -964657.550 137.170 103 79 54
-747425.331 -964657.875 137.203 169 148 123
-747425.687 -964659.111 137.488 109 86 59
-747425.833 -964658.115 137.056 76 63 48
-747425.635 -964658.437 137.177 138 109 80
-747425.499 -964658.475 137.173 104 83 61
-747425.795 -964658.366 137.344 128 115 83
-747425.905 -964659.477 137.643 187 158 130
-747425.837 -964658.510 137.331 126 98 68
-747425.636 -964658.770 137.359 85 58 37
-747425.946 -964658.943 137.501 36 19 7
-747425.877 -964658.270 137.073 139 124 86
-747425.782 -964658.350 137.187 97 78 52
-747425.789 -964658.116 137.503 190 175 155
-747425.858 -964658.608 137.514 174 149 115
-747425.338 -964657.639 137.372 173 146 116
-747425.427 -964658.127 137.361 151 123 94
-747425.196 -964657.721 137.342 167 143 109
-747425.451 -964658.478 137.345 143 122 94
-747425.302 -964658.195 137.348 162 142 115
-747425.378 -964658.693 137.358 154 129 100
-747425.161 -964658.633 137.207 157 130 96
-747425.840 -964658.252 137.509 195 181 163
-747425.723 -964657.980 137.490 194 181 164
-747425.625 -964657.846 137.508 185 157 121
-747425.355 -964657.996 137.358 162 129 90
-747425.276 -964657.858 137.355 184 158 122
-747425.221 -964658.071 137.336 169 145 112
-747425.793 -964658.458 137.499 169 144 111
-747425.733 -964658.675 137.501 157 129 92
-747425.313 -964658.888 137.211 126 104 73
-747424.742 -964658.155 137.033 109 94 63
-747424.799 -964658.311 137.049 90 77 58
-747424.885 -964658.431 137.030 120 96 70
-747425.161 -964658.632 137.049 130 104 76
-747425.020 -964658.342 137.051 117 95 69
-747425.102 -964658.503 137.035 122 100 73
-747425.679 -964658.899 137.345 70 46 31
-747425.096 -964657.574 137.164 114 89 58
-747425.654 -964658.575 137.373 120 91 63
-747425.262 -964657.844 137.178 170 147 115
-747425.623 -964658.755 137.359 107 76 51
-747425.823 -964659.162 137.509 136 111 80
-747425.692 -964657.954 137.353 78 62 40
-747425.758 -964658.116 137.388 164 149 108
-747425.596 -964658.393 137.168 117 97 72
-747425.375 -964658.734 137.204 182 161 136
-747426.180 -964659.513 137.639 140 124 93
-747425.498 -964657.592 136.999 97 81 55
-747426.030 -964658.845 137.328 148 117 85
-747425.966 -964659.079 137.470 57 37 20
-747425.800 -964658.145 137.504 193 176 156
-747425.805 -964658.500 137.511 160 135 97
-747425.884 -964658.637 137.523 165 141 107
-747425.288 -964657.540 137.340 177 148 115
-747425.222 -964657.750 137.342 166 141 108
-747425.611 -964658.791 137.501 170 139 98
-747425.445 -964658.163 137.362 165 134 102
-747425.456 -964658.512 137.357 143 125 99
-747425.311 -964658.238 137.340 158 134 105
-747425.233 -964658.099 137.337 177 150 115
-747425.734 -964658.009 137.491 193 181 165
-747425.628 -964659.135 137.643 156 132 97
-747425.366 -964658.025 137.359 150 123 88
-747425.584 -964657.739 137.494 176 149 119
-747425.751 -964658.711 137.512 160 131 95
-747425.295 -964657.893 137.366 181 158 124
-747425.650 -964657.875 137.508 190 164 128
-747425.389 -964658.377 137.334 157 132 97
-747425.268 -964658.812 137.338 159 130 96
-747424.752 -964658.197 137.035 107 91 64
-747424.721 -964657.852 137.052 166 142 109
-747425.108 -964658.511 137.035 137 112 83
-747425.375 -964658.734 137.204 179 158 133
-747425.043 -964658.400 137.053 135 115 85
-747425.842 -964659.197 137.519 75 57 36
-747425.251 -964657.750 137.202 173 153 118
-747424.904 -964658.453 137.030 147 120 88
-747425.686 -964658.906 137.355 97 65 46
-747425.654 -964658.575 137.373 120 91 63
-747425.322 -964657.550 137.170 103 79 54
-747425.447 -964658.519 137.181 121 95 66
-747425.579 -964658.113 137.168 146 114 83
-747425.498 -964657.592 136.999 97 81 55
-747425.837 -964658.510 137.331 126 98 68
-747426.013 -964658.924 137.375 50 34 17
-747425.952 -964659.156 137.536 36 23 11
-747425.327 -964657.904 137.186 150 125 100
-747425.877 -964658.270 137.073 140 125 87
-747425.561 -964658.142 137.398 157 133 101
-747425.344 -964657.736 137.379 168 143 110
-747425.507 -964658.354 137.380 156 130 96
-747425.380 -964658.781 137.394 154 135 104
-747425.328 -964657.379 137.393 161 139 110
-747424.714 -964657.898 137.253 147 130 96
-747425.419 -964657.866 137.401 167 136 99
-747425.863 -964658.335 137.542 182 165 143
-747425.941 -964658.819 137.561 154 127 95
-747425.230 -964658.511 137.240 170 146 110
-747425.020 -964658.445 137.235 179 151 122
-747425.170 -964658.715 137.232 156 134 99
-747425.400 -964657.523 137.407 161 136 106
-747425.459 -964658.574 137.371 153 131 100
-747424.870 -964658.175 137.082 121 99 73
-747424.793 -964658.009 137.077 142 116 86
-747425.241 -964658.475 137.089 140 112 81
-747424.940 -964658.307 137.065 162 141 110
-747425.710 -964658.758 137.401 105 81 56
-747425.244 -964657.603 137.211 162 141 114
-747424.854 -964657.792 137.074 96 73 46
-747425.316 -964657.747 137.225 169 145 108
-747425.821 -964658.907 137.392 104 82 58
-747425.677 -964658.081 137.226 96 69 44
-747425.476 -964658.559 137.231 111 85 61
-747425.402 -964658.775 137.234 170 148 112
-747426.010 -964659.299 137.551 60 45 25
-747426.096 -964659.430 137.552 125 111 83
-747425.442 -964657.512 137.077 141 123 92
-747425.865 -964658.344 137.090 98 80 57
-747426.013 -964658.924 137.375 50 34 17
-747425.952 -964659.156 137.536 37 23 11
-747425.407 -964657.901 137.218 134 110 78
-747425.602 -964657.926 137.093 146 129 90
-747425.745 -964658.203 137.248 148 124 91
-747425.891 -964658.721 137.529 151 132 100
-747425.436 -964657.902 137.402 170 141 104
-747425.357 -964657.764 137.390 170 145 112
-747425.524 -964658.390 137.381 165 137 102
-747425.471 -964658.602 137.382 162 135 101
-747425.487 -964658.960 137.525 154 129 90
-747425.346 -964657.415 137.394 183 162 134
-747424.683 -964658.141 137.225 138 117 81
-747425.619 -964658.887 137.527 150 128 92
-747425.393 -964658.809 137.405 161 139 105
-747425.255 -964658.540 137.240 178 152 118
-747425.190 -964658.750 137.252 155 133 101
-747424.732 -964657.934 137.254 153 138 102
-747425.412 -964657.552 137.408 155 131 97
-747425.868 -964658.369 137.554 181 160 134
-747425.044 -964658.476 137.226 168 141 108
-747425.587 -964658.171 137.398 148 125 94
-747425.411 -964658.831 137.237 110 83 57
-747424.825 -964658.059 137.087 155 137 110
-747424.880 -964658.204 137.073 90 73 50
-747425.189 -964658.404 137.059 118 96 72
-747425.448 -964658.608 137.198 144 117 88
-747424.965 -964658.338 137.055 111 90 66
-747425.210 -964658.744 137.082 119 96 66
-747425.633 -964659.221 137.541 104 79 52
-747425.299 -964657.633 137.238 102 82 51
-747425.341 -964657.777 137.225 190 167 137
-747425.242 -964658.551 137.095 175 149 121
-747425.388 -964657.429 137.096 149 128 100
-747425.733 -964658.457 137.199 92 71 46
-747425.636 -964657.975 137.212 88 68 47
-747425.666 -964658.321 137.097 150 127 94
-747425.820 -964658.921 137.393 108 85 61
-747425.418 -964657.558 137.083 198 172 153
-747425.865 -964658.344 137.090 98 80 57
-747425.556 -964658.772 137.249 73 48 29
-747425.467 -964658.964 137.370 151 125 96
-747425.407 -964657.901 137.218 134 111 78
-747426.085 -964659.350 137.508 106 83 61
-747425.501 -964657.464 137.551 189 182 169
-747425.436 -964657.327 137.546 169 164 157
-747425.964 -964658.634 137.555 173 155 132
-747425.899 -964658.497 137.551 163 135 100
-747425.460 -964658.023 137.389 170 136 100
-747425.537 -964658.162 137.383 162 136 104
-747425.357 -964658.801 137.388 163 145 111
-747425.303 -964657.400 137.368 169 145 116
-747424.683 -964657.911 137.237 152 134 104
-747425.612 -964658.291 137.405 166 140 113
-747425.846 -964658.363 137.526 177 156 126
-747425.370 -964657.536 137.391 161 136 107
-747425.387 -964657.892 137.386 153 129 96
-747425.918 -964658.839 137.555 152 129 100
-747425.200 -964658.523 137.224 178 149 113
-747424.990 -964658.457 137.229 178 152 121
-747424.833 -964658.193 137.077 136 114 84
-747424.809 -964657.842 137.092 93 74 51
-747424.887 -964657.981 137.085 147 126 101
-747425.492 -964659.083 137.386 195 171 149
-747425.195 -964658.514 137.077 117 92 66
-747424.912 -964658.318 137.069 152 133 105
-747425.333 -964658.462 137.089 130 110 86
-747425.702 -964658.765 137.392 105 83 56
-747425.758 -964658.909 137.388 112 89 69
-747425.244 -964657.603 137.211 162 140 113
-747425.304 -964657.731 137.235 171 147 108
-747425.677 -964658.081 137.226 96 69 43
-747425.407 -964657.901 137.218 134 111 78
-747425.595 -964657.920 137.084 147 129 91
-747425.745 -964658.203 137.248 148 124 91
-747426.088 -964659.437 137.544 121 106 81
-747425.513 -964657.492 137.552 186 180 169
-747425.454 -964657.363 137.548 167 159 149
-747425.917 -964658.533 137.552 176 152 119
-747425.854 -964658.739 137.524 159 137 99
-747425.477 -964658.059 137.390 166 133 95
-747425.333 -964657.785 137.374 170 143 107
-747425.590 -964658.899 137.521 158 135 98
-747425.441 -964658.627 137.377 152 130 98
-747425.369 -964658.829 137.398 164 142 105
-747425.315 -964657.428 137.378 180 155 125
-747425.218 -964658.559 137.225 180 154 116
-747424.708 -964657.954 137.238 152 136 104
-747425.399 -964657.921 137.387 170 145 110
-747425.147 -964658.427 137.242 165 140 110
-747425.850 -964658.397 137.528 177 153 123
-747425.388 -964657.572 137.392 152 129 100
-747425.550 -964658.190 137.393 162 136 102
-747424.777 -964658.099 137.065 152 132 97
-747424.821 -964657.871 137.093 125 102 74
-747424.905 -964658.017 137.086 175 154 127
-747425.370 -964658.828 137.241 97 78 51
-747425.499 -964659.090 137.386 205 182 160
-747424.859 -964658.209 137.075 89 71 47
-747425.413 -964657.908 137.218 119 97 67
-747425.551 -964658.187 137.088 123 94 68
-747425.486 -964658.781 137.246 112 90 64
